x,y,z,intensity,gps_time,label,global_id
746058.40400391,2574344.72950684,451.86105347,514,4517.19775391,30,708010003
746059.08149414,2574344.73948608,451.97573853,2570,4517.19775391,30,708010003
746058.16309814,2574344.78950439,451.65493774,21845,4517.19775391,30,708010003
746058.42030029,2574344.72419678,451.85504150,514,4517.19775391,30,708010003
746059.12397461,2574344.73438965,451.96743774,2313,4517.19775391,30,708010003
746058.30268555,2574344.73509155,451.78616333,3084,4517.19775391,30,708010003
746058.42487793,2574344.71668945,451.85055542,771,4517.19775391,30,708010003
746058.65357666,2574344.70909058,451.90963745,771,4517.19775391,30,708010003
746058.17548828,2574344.77738892,451.64514160,22616,4517.19775391,30,708010003
746058.31690674,2574344.72950684,451.77993774,2570,4517.19775391,30,708010003
746058.44111328,2574344.71079956,451.84436035,771,4517.19775391,30,708010003
746058.67011719,2574344.70240723,451.90356445,1028,4517.19775391,30,708010003
746058.22657471,2574344.74290405,451.71163940,3598,4517.19775391,30,708010003
746058.45740967,2574344.70478760,451.83804321,771,4517.19775391,30,708010003
746058.18031006,2574344.76328979,451.63714600,21845,4517.19775391,30,708010003
746058.26752930,2574344.74220215,451.69915771,10023,4517.19775391,30,708010003
746058.45399170,2574344.69599854,451.83474731,771,4517.19775391,30,708010003
746058.70277100,2574344.68839966,451.89123535,1028,4517.19775391,30,708010003
746058.17512207,2574344.75529419,451.63525391,15163,4517.19775391,30,708010003
746058.29499512,2574344.73930298,451.68963623,9252,4517.19775391,30,708010003
746058.33210449,2574344.70851074,451.76635742,771,4517.19775391,30,708010003
746058.48591309,2574344.69230591,451.82614136,771,4517.19775391,30,708010003
746058.73487549,2574344.68369995,451.88336182,1028,4517.19775391,30,708010003
746058.17927246,2574344.74861084,451.63073730,25700,4517.19775391,30,708010003
746058.34229736,2574344.70210205,451.76074219,257,4517.19775391,30,708010003
746058.47071533,2574344.68199097,451.82455444,771,4517.19775391,30,708010003
746058.75922852,2574344.67729126,451.87603760,1028,4517.19775391,30,708010003
746058.34461670,2574344.69450317,451.75665283,514,4517.19775391,30,708010003
746058.50257568,2574344.67768799,451.81564331,514,4517.19775391,30,708010003
746058.28468018,2574344.71430908,451.68115234,11308,4517.19775391,30,708010003
746058.35871582,2574344.68849121,451.75024414,771,4517.19775391,30,708010003
746058.51472168,2574344.67079102,451.80975342,771,4517.19775391,30,708010003
746058.81342773,2574344.66480957,451.86056519,1285,4517.19775391,30,708010003
746058.18800049,2574344.72779785,451.61816406,20046,4517.19775391,30,708010003
746058.28120117,2574344.70600830,451.67834473,9766,4517.19775391,30,708010003
746058.36292725,2574344.68110596,451.74563599,771,4517.19775391,30,708010003
746058.83961182,2574344.65818726,451.85284424,1285,4517.19775391,30,708010003
746058.17689209,2574344.71839844,451.61755371,25700,4517.19775391,30,708010003
746058.37489014,2574344.67469727,451.73956299,771,4517.19824219,30,708010003
746058.54291992,2574344.65769897,451.79745483,771,4517.19824219,30,708010003
746058.87348633,2574344.65269409,451.84423828,1285,4517.19824219,30,708010003
746058.19428711,2574344.71418701,451.60964966,25700,4517.19824219,30,708010003
746058.37922363,2574344.66758667,451.73535156,771,4517.19824219,30,708010003
746058.55311279,2574344.65031372,451.79183960,771,4517.19824219,30,708010003
746058.90742188,2574344.64649902,451.83535767,1285,4517.19824219,30,708010003
746058.27039795,2574344.68211304,451.67034912,6168,4517.19824219,30,708010003
746058.39887695,2574344.66200195,451.72766113,771,4517.19824219,30,708010003
746058.57697754,2574344.64469849,451.78414917,771,4517.19824219,30,708010003
746058.93146973,2574344.63960205,451.82785034,1285,4517.19824219,30,708010003
746058.19471436,2574344.69981323,451.60275269,3598,4517.19824219,30,708010003
746058.60078125,2574344.63868652,451.77615356,771,4517.19824219,30,708010003
746058.99500732,2574344.63569580,451.81484985,2056,4517.19824219,30,708010003
746058.41108398,2574344.64729248,451.71765137,771,4517.19824219,30,708010003
746058.63441162,2574344.63301025,451.76623535,1028,4517.19824219,30,708010003
746059.07038574,2574344.63261353,451.80004883,2827,4517.19824219,30,708010003
746058.30201416,2574344.66270386,451.65203857,2827,4517.19824219,30,708010003
746058.64252930,2574344.62501465,451.76074219,1028,4517.19824219,30,708010003
746058.24311523,2574344.68418823,451.57916260,3855,4517.19824219,30,708010003
746058.30598145,2574344.65589844,451.64755249,15677,4517.19824219,30,708010003
746058.43677979,2574344.63429199,451.70504761,771,4517.19824219,30,708010003
746058.65638428,2574344.61799561,451.75445557,771,4517.19824219,30,708010003
746058.26417236,2574344.68000732,451.56994629,4883,4517.19824219,30,708010003
746058.29450684,2574344.64698730,451.64685059,13878,4517.19824219,30,708010003
746058.45637207,2574344.62870728,451.69735718,771,4517.19824219,30,708010003
746058.67811279,2574344.61170898,451.74664307,1028,4517.19824219,30,708010003
746059.07288818,2574344.60279785,451.78555298,771,4517.19824219,30,708010003
746058.26618652,2574344.67250000,451.56585693,5911,4517.19824219,30,708010003
746058.30421143,2574344.64039551,451.64083862,12079,4517.19824219,30,708010003
746058.46027832,2574344.62089478,451.69265747,771,4517.19824219,30,708010003
746058.69788818,2574344.60450684,451.73913574,1028,4517.19824219,30,708010003
746059.00989990,2574344.58760010,451.78964233,514,4517.19824219,30,708010003
746058.27583008,2574344.66609131,451.55953979,8995,4517.19824219,30,708010003
746058.31971436,2574344.63450562,451.63345337,11565,4517.19824219,30,708010003
746058.73328857,2574344.59870850,451.72875977,1028,4517.19824219,30,708010003
746058.25861816,2574344.65620361,451.56076050,6168,4517.19824219,30,708010003
746058.33527832,2574344.62840210,451.62594604,11308,4517.19824219,30,708010003
746058.48389893,2574344.60670410,451.67984009,3598,4517.19824219,30,708010003
746058.76087646,2574344.59181152,451.71954346,1028,4517.19824219,30,708010003
746058.26630859,2574344.64961182,451.55496216,10794,4517.19824219,30,708010003
746058.33521729,2574344.62049805,451.62225342,10794,4517.19824219,30,708010003
746058.49171143,2574344.59910522,451.67425537,5911,4517.19824219,30,708010003
746058.78638916,2574344.58479248,451.71066284,1028,4517.19824219,30,708010003
746058.34681396,2574344.61430298,451.61584473,10794,4517.19824219,30,708010003
746058.51307373,2574344.59269653,451.66574097,4883,4517.19824219,30,708010003
746058.82172852,2574344.57868896,451.70016479,1542,4517.19824219,30,708010003
746058.26807861,2574344.63481079,451.54736328,5654,4517.19824219,30,708010003
746058.52668457,2574344.58601318,451.65905762,4883,4517.19824219,30,708010003
746058.83930664,2574344.57069336,451.69253540,2570,4517.19824219,30,708010003
746058.37373047,2574344.60160767,451.60174561,10280,4517.19824219,30,708010003
746058.86872559,2574344.56379639,451.68295288,2827,4517.19824219,30,708010003
746058.27930908,2574344.62119995,451.53695679,4883,4517.19873047,30,708010003
746058.37952881,2574344.59431396,451.59655762,9252,4517.19873047,30,708010003
746058.55762939,2574344.57209717,451.64443970,4369,4517.19873047,30,708010003
746058.91761475,2574344.55769287,451.66946411,2827,4517.19873047,30,708010003
746058.27161865,2574344.61250244,451.53555298,9252,4517.19873047,30,708010003
746058.39472656,2574344.58769165,451.58883667,7453,4517.19873047,30,708010003
746058.58088379,2574344.56541382,451.63534546,3855,4517.19873047,30,708010003
746058.95863037,2574344.55079590,451.65713501,3084,4517.19873047,30,708010003
746058.28480225,2574344.60630737,451.52804565,8481,4517.19873047,30,708010003
746058.40607910,2574344.58070312,451.58206177,6939,4517.19873047,30,708010003
746058.60603027,2574344.55879150,451.62564087,3598,4517.19873047,30,708010003
746058.42518311,2574344.57429443,451.57336426,6168,4517.19873047,30,708010003
746058.62922363,2574344.55171143,451.61636353,3084,4517.19873047,30,708010003
746058.65040283,2574344.54499756,451.60763550,2827,4517.19873047,30,708010003
746058.68897705,2574344.53880249,451.59475708,2570,4517.19873047,30,708010003
746058.49390869,2574344.55580078,451.54385376,2827,4517.19873047,30,708010003
746058.73920898,2574344.53309570,451.57904053,2570,4517.19873047,30,708010003
746058.37507324,2574344.57688843,451.48294067,7196,4517.19873047,30,708010003
746058.40150146,2574344.57170044,451.47143555,6168,4517.19873047,30,708010003
746058.85139160,2574344.52250610,451.54495239,771,4517.19873047,30,708010003
746058.40858154,2574344.56379639,451.46514893,5654,4517.19873047,30,708010003
746058.58717041,2574344.53819214,451.50735474,2570,4517.19873047,30,708010003
746058.93067627,2574344.51689087,451.52185059,771,4517.19873047,30,708010003
746058.42542725,2574344.55711304,451.45614624,5140,4517.19873047,30,708010003
746058.64082031,2574344.53269897,451.48873901,1799,4517.19873047,30,708010003
746058.44208984,2574344.55070435,451.44723511,4369,4517.19873047,30,708010003
746058.68269043,2574344.52711426,451.47344971,1542,4517.19873047,30,708010003
746058.48939209,2574344.54661499,451.42904663,3084,4517.19873047,30,708010003
746058.74970703,2574344.52268921,451.45126343,1542,4517.19873047,30,708010003
746058.85120850,2574344.51948486,451.41925049,1285,4517.19873047,30,708010003
746058.57398682,2574344.53590332,451.39483643,2056,4517.19873047,30,708010003
746058.97187500,2574344.51679932,451.38165283,514,4517.19873047,30,708010003
746058.62110596,2574344.53041016,451.37603760,1799,4517.19921875,30,708010003
746058.65858154,2574344.52409302,451.36013794,771,4517.19921875,30,708010003
746059.20490723,2574344.54859863,451.18536377,3084,4517.19921875,30,708010003
746059.22871094,2574344.53990112,451.17285156,4112,4517.19921875,30,708010003
746059.20490723,2574344.52778564,451.17495728,4369,4517.19921875,30,708010003
746059.20209961,2574344.51710449,451.17056274,5397,4517.19921875,30,708010003
746058.71528320,2574347.90870605,451.52386475,1799,4517.28759766,30,708010003
746058.17371826,2574347.25089966,451.65484619,1542,4517.28759766,30,708010003
746058.16328125,2574347.22239624,451.65365601,7196,4517.28759766,30,708010003
746058.16309814,2574347.20579468,451.64984131,12079,4517.28759766,30,708010003
746058.15888672,2574347.18489014,451.64715576,14906,4517.28808594,30,708010003
746058.20386963,2574347.13490234,451.75503540,1285,4517.28808594,30,708010003
746058.16279297,2574347.15830933,451.63876343,1285,4517.28808594,30,708010003
746058.20820313,2574347.12480103,451.75015259,11051,4517.28808594,30,708010003
746058.16712646,2574347.14820801,451.63406372,11051,4517.28808594,30,708010003
746058.19410400,2574347.09370361,451.74884033,15934,4517.28808594,30,708010003
746058.18232422,2574347.06608520,451.74743652,5654,4517.28808594,30,708010003
746058.17200928,2574347.12309204,451.62533569,11565,4517.28808594,30,708010003
746058.16059570,2574347.09498535,451.62466431,15677,4517.28808594,30,708010003
746058.19471436,2574347.05009399,451.73684692,771,4517.28808594,30,708010003
746058.15278320,2574347.07170044,451.62313843,16705,4517.28808594,30,708010003
746058.20051270,2574347.04099976,451.73153687,514,4517.28808594,30,708010003
746058.22407227,2574346.98631226,451.84365845,8738,4517.28808594,30,708010003
746058.19758301,2574347.02369629,451.72824097,1285,4517.28808594,30,708010003
746058.22382813,2574346.97199951,451.83944702,11565,4517.28808594,30,708010003
746058.19611816,2574347.00788818,451.72463989,257,4517.28808594,30,708010003
746058.21101074,2574346.94480835,451.83746338,1542,4517.28808594,30,708010003
746058.15302734,2574347.02809082,451.61233521,257,4517.28808594,30,708010003
746058.22309570,2574347.02229248,451.71484375,257,4517.28808594,30,708010003
746058.21271973,2574347.07881104,451.59243774,257,4517.28808594,30,708010003
746058.26832275,2574347.05461060,451.70074463,257,4517.28808594,30,708010003
746058.20521240,2574346.90998779,451.82965088,257,4517.28808594,30,708010003
746058.22272949,2574347.07350098,451.58584595,257,4517.28808594,30,708010003
746058.23731689,2574347.00651489,451.70333862,257,4517.28808594,30,708010003
746058.22767334,2574346.91749512,451.82125854,771,4517.28808594,30,708010003
746058.25227051,2574346.86650024,451.92953491,6939,4517.28808594,30,708010003
746058.20307617,2574347.03660522,451.58724976,257,4517.28808594,30,708010003
746058.24458008,2574346.99839722,451.69744873,257,4517.28808594,30,708010003
746058.25507813,2574346.85438477,451.92434692,16191,4517.28808594,30,708010003
746058.21229248,2574347.03221069,451.58114624,257,4517.28808594,30,708010003
746058.17121582,2574346.90888916,451.71014404,257,4517.28808594,30,708010003
746058.25288086,2574346.83900391,451.92025757,19018,4517.28857422,30,708010003
746058.19172363,2574346.99619995,451.58334351,257,4517.28857422,30,708010003
746058.50721436,2574347.23939453,451.62954712,257,4517.28857422,30,708010003
746058.21198730,2574346.86061035,451.81146240,257,4517.28857422,30,708010003
746058.24769287,2574346.82069336,451.91644287,3084,4517.28857422,30,708010003
746058.20917969,2574346.99989258,451.57473755,257,4517.28857422,30,708010003
746058.20722656,2574346.91850220,451.69433594,257,4517.28857422,30,708010003
746058.22712402,2574346.86140381,451.80444336,257,4517.28857422,30,708010003
746058.19117432,2574346.96699463,451.57626343,257,4517.28857422,30,708010003
746058.17078857,2574346.86729370,451.69876099,257,4517.28857422,30,708010003
746058.21339111,2574346.83479248,451.80285645,257,4517.28857422,30,708010003
746058.24317627,2574346.78950439,451.90814209,514,4517.28857422,30,708010003
746058.21131592,2574346.97340332,451.56686401,257,4517.28857422,30,708010003
746058.18800049,2574346.87141357,451.69094849,257,4517.28857422,30,708010003
746058.21290283,2574346.82020508,451.79864502,257,4517.28857422,30,708010003
746058.25812988,2574346.79051147,451.90176392,514,4517.28857422,30,708010003
746058.16840820,2574346.91538940,451.57556152,257,4517.28857422,30,708010003
746058.18879395,2574346.85819946,451.68685913,257,4517.28857422,30,708010003
746058.20747070,2574346.80210815,451.79565430,257,4517.28857422,30,708010003
746058.28370361,2574346.72859131,452.00173950,4626,4517.28857422,30,708010003
746058.18311768,2574346.91621338,451.56774902,257,4517.28857422,30,708010003
746058.18128662,2574346.83671509,451.68475342,257,4517.28857422,30,708010003
746058.21107178,2574346.79179321,451.79074097,257,4517.28857422,30,708010003
746058.27540283,2574346.77940308,451.89013672,1028,4517.28857422,30,708010003
746058.28120117,2574346.71290527,451.99716187,11565,4517.28857422,30,708010003
746058.19501953,2574346.91410767,451.56063843,257,4517.28857422,30,708010003
746058.18049316,2574346.82218872,451.68093872,257,4517.28857422,30,708010003
746058.20307617,2574346.77049194,451.78805542,257,4517.28857422,30,708010003
746058.25849609,2574346.75010620,451.88793945,257,4517.28857422,30,708010003
746058.27991943,2574346.69911133,451.99264526,16191,4517.28857422,30,708010003
746058.19001465,2574346.89561401,451.55856323,257,4517.28857422,30,708010003
746058.19361572,2574346.82191406,451.67404175,257,4517.28857422,30,708010003
746058.20179443,2574346.75660645,451.78424072,257,4517.28857422,30,708010003
746058.26160889,2574346.74018799,451.88323975,257,4517.28857422,30,708010003
746058.27552490,2574346.68260132,451.98855591,13364,4517.28857422,30,708010003
746058.28419189,2574346.97749268,451.52755737,257,4517.28857422,30,708010003
746058.18818359,2574346.80369507,451.67166138,257,4517.28857422,30,708010003
746058.26179199,2574346.72761475,451.87884521,257,4517.28857422,30,708010003
746058.26527100,2574346.66050659,451.98486328,7967,4517.28857422,30,708010003
746058.25343018,2574346.93189941,451.53283691,257,4517.28857422,30,708010003
746058.18879395,2574346.79069458,451.66766357,257,4517.28857422,30,708010003
746058.19367676,2574346.72279297,451.77764893,257,4517.28857422,30,708010003
746058.25031738,2574346.70390259,451.87603760,257,4517.28857422,30,708010003
746058.17799072,2574346.84239136,451.55123901,257,4517.28857422,30,708010003
746058.19349365,2574346.78169189,451.66253662,257,4517.28857422,30,708010003
746058.20130615,2574346.71668945,451.77206421,257,4517.28857422,30,708010003
746058.27418213,2574346.71229492,451.86795044,257,4517.28857422,30,708010003
746058.20917969,2574346.85951172,451.53845215,257,4517.28857422,30,708010003
746058.19111328,2574346.76591431,451.65924072,257,4517.28857422,30,708010003
746058.18562012,2574346.68901001,451.77105713,257,4517.28857422,30,708010003
746058.28040771,2574346.70469604,451.86254883,257,4517.28857422,30,708010003
746058.26429443,2574346.62071167,451.97076416,257,4517.28857422,30,708010003
746058.21510010,2574346.85209595,451.53314209,257,4517.28857422,30,708010003
746058.20002441,2574346.68989502,451.76425171,257,4517.28857422,30,708010003
746058.23890381,2574346.65489136,451.86474609,257,4517.28857422,30,708010003
746058.27460938,2574346.61750732,451.96514893,257,4517.28857422,30,708010003
746058.21278076,2574346.83619629,451.53024292,257,4517.28857422,30,708010003
746058.17707520,2574346.72660767,451.65515137,257,4517.28857422,30,708010003
746058.19141846,2574346.66899048,451.76184082,257,4517.28857422,30,708010003
746058.25080566,2574346.65260254,451.85845947,257,4517.28857422,30,708010003
746058.28217773,2574346.61119019,451.95965576,1285,4517.28857422,30,708010003
746058.16718750,2574346.77790771,451.54025269,257,4517.28906250,30,708010003
746058.17872314,2574346.71501099,451.65084839,257,4517.28906250,30,708010003
746058.20020752,2574346.66410767,451.75595093,257,4517.28906250,30,708010003
746058.23890381,2574346.62928711,451.85583496,257,4517.28906250,30,708010003
746058.28059082,2574346.59721313,451.95513916,771,4517.28906250,30,708010003
746058.12952881,2574346.72801147,451.54806519,257,4517.28906250,30,708010003
746058.20191650,2574346.72358643,451.64123535,257,4517.28906250,30,708010003
746058.19440918,2574346.64601074,451.75305176,257,4517.28906250,30,708010003
746058.22987061,2574346.60859619,451.85293579,257,4517.28906250,30,708010003
746058.27131348,2574346.57661377,451.95153809,257,4517.28906250,30,708010003
746058.30341797,2574346.53739868,452.05105591,7196,4517.28906250,30,708010003
746058.11982422,2574346.70561157,451.54754639,771,4517.28906250,30,708010003
746058.16749268,2574346.67838989,451.64614868,257,4517.28906250,30,708010003
746058.19880371,2574346.63709961,451.74804688,257,4517.28906250,30,708010003
746058.25440674,2574346.54969727,451.94894409,257,4517.28906250,30,708010003
746058.11707764,2574346.68998657,451.54486084,257,4517.28906250,30,708010003
746058.14710693,2574346.64710937,451.64773560,257,4517.28906250,30,708010003
746058.19129639,2574346.61769043,451.74554443,257,4517.28906250,30,708010003
746058.21577148,2574346.57170044,451.84686279,257,4517.28906250,30,708010003
746058.25379639,2574346.53749023,451.94464111,257,4517.28906250,30,708010003
746058.27180176,2574346.48689209,452.04385376,13107,4517.28906250,30,708010003
746058.10407715,2574346.66538940,451.54556274,257,4517.28906250,30,708010003
746058.16859131,2574346.65440308,451.63845825,257,4517.28906250,30,708010003
746058.19080811,2574346.60530029,451.74185181,257,4517.28906250,30,708010003
746058.22907715,2574346.57069336,451.84036255,257,4517.28906250,30,708010003
746058.25959473,2574346.52989136,451.93936157,257,4517.28906250,30,708010003
746058.28187256,2574346.48359619,452.03845215,14906,4517.28906250,30,708010003
746058.11530762,2574346.66331421,451.53863525,257,4517.28906250,30,708010003
746058.15522461,2574346.62989746,451.63824463,257,4517.28906250,30,708010003
746058.18470459,2574346.58720337,451.73913574,257,4517.28906250,30,708010003
746058.27418213,2574346.53028809,451.93313599,257,4517.28906250,30,708010003
746058.27827148,2574346.46848999,452.03393555,14392,4517.28906250,30,708010003
746058.10920410,2574346.64549194,451.53713989,257,4517.28906250,30,708010003
746058.17390137,2574346.63429199,451.62963867,257,4517.28906250,30,708010003
746058.17969971,2574346.57099854,451.73645020,257,4517.28906250,30,708010003
746058.22510986,2574346.54310547,451.83255005,257,4517.28906250,30,708010003
746058.26307373,2574346.50880371,451.93005371,257,4517.28906250,30,708010003
746058.10480957,2574346.62870728,451.53515625,1028,4517.28906250,30,708010003
746058.16059570,2574346.60960327,451.62936401,257,4517.28906250,30,708010003
746058.18671875,2574346.56471191,451.73095703,257,4517.28906250,30,708010003
746058.20649414,2574346.51499878,451.83154297,257,4517.28906250,30,708010003
746058.27949219,2574346.51008545,451.92333984,257,4517.28906250,30,708010003
746058.18330078,2574346.54951416,451.72766113,257,4517.28906250,30,708010003
746058.21809082,2574346.51249634,451.82525635,257,4517.28906250,30,708010003
746058.25739746,2574346.47981201,451.92175293,257,4517.28906250,30,708010003
746058.08851318,2574346.58860718,451.53335571,6425,4517.28906250,30,708010003
746058.16572266,2574346.58930908,451.62054443,257,4517.28906250,30,708010003
746058.17841797,2574346.53291260,451.72476196,257,4517.28906250,30,708010003
746058.21149902,2574346.49488770,451.82223511,257,4517.28906250,30,708010003
746058.25361328,2574346.46470581,451.91775513,257,4517.28906250,30,708010003
746058.27540283,2574346.41889893,452.01565552,257,4517.28906250,30,708010003
746058.09382324,2574346.58119141,451.52825928,10794,4517.28906250,30,708010003
746058.19569092,2574346.53568970,451.71694946,257,4517.28906250,30,708010003
746058.24519043,2574346.44590698,451.91445923,257,4517.28906250,30,708010003
746058.09187012,2574346.56721436,451.52545166,12593,4517.28906250,30,708010003
746058.65998535,2574347.00111328,451.47973633,257,4517.28906250,30,708010003
746058.18470459,2574346.51399170,451.71545410,257,4517.28906250,30,708010003
746058.23457031,2574346.48991333,451.80966187,257,4517.28906250,30,708010003
746058.22578125,2574346.41850220,451.91265869,257,4517.28906250,30,708010003
746058.26911621,2574346.39039551,452.00683594,257,4517.28906250,30,708010003
746058.44569092,2574346.46128784,452.09396362,514,4517.28906250,30,708010003
746058.08851318,2574346.55189453,451.52316284,14906,4517.28906250,30,708010003
746058.17609863,2574346.56129395,451.60653687,257,4517.28906250,30,708010003
746058.17048340,2574346.48991333,451.71466064,257,4517.28906250,30,708010003
746058.22156982,2574346.46720825,451.80773926,257,4517.28906250,30,708010003
746058.25727539,2574346.43238770,451.90405273,257,4517.28906250,30,708010003
746058.28077393,2574346.38780151,452.00103760,514,4517.28906250,30,708010003
746058.41297607,2574346.42469727,452.09075928,1285,4517.28906250,30,708010003
746058.08771973,2574346.53968750,451.52014160,16191,4517.28906250,30,708010003
746058.16639404,2574346.54121338,451.60556030,514,4517.28906250,30,708010003
746058.17847900,2574346.48530518,451.70913696,257,4517.28906250,30,708010003
746058.19599609,2574346.43489014,451.80844116,257,4517.28906250,30,708010003
746058.23902588,2574346.40669189,451.90243530,257,4517.28906250,30,708010003
746058.28120117,2574346.37699829,451.99664307,514,4517.28906250,30,708010003
746058.33320313,2574346.35420166,452.09063721,3855,4517.28906250,30,708010003
746058.17139893,2574346.53401123,451.60064697,257,4517.28906250,30,708010003
746058.16853027,2574346.46549927,451.70764160,257,4517.28906250,30,708010003
746058.21931152,2574346.37959229,451.90084839,257,4517.28906250,30,708010003
746058.31257324,2574346.32810913,452.08724976,10023,4517.28906250,30,708010003
746058.09498291,2574346.52220093,451.51104736,14906,4517.28955078,30,708010003
746058.16480713,2574346.51618896,451.59875488,257,4517.28955078,30,708010003
746058.17237549,2574346.45631348,451.70263672,257,4517.28955078,30,708010003
746058.19562988,2574346.41120850,451.80026245,257,4517.28955078,30,708010003
746058.22297363,2574346.37089478,451.89593506,257,4517.28955078,30,708010003
746058.29011230,2574346.36061035,451.98645020,257,4517.28955078,30,708010003
746058.30531006,2574346.31071411,452.08264160,15420,4517.28955078,30,708010003
746058.09278564,2574346.50828491,451.50836182,17219,4517.28955078,30,708010003
746058.15540771,2574346.49549805,451.59756470,257,4517.28955078,30,708010003
746058.16853027,2574346.44129883,451.69973755,257,4517.28955078,30,708010003
746058.22059326,2574346.35679565,451.89175415,257,4517.28955078,30,708010003
746058.26038818,2574346.32670532,451.98495483,257,4517.28955078,30,708010003
746058.30238037,2574346.29728638,452.07806396,15677,4517.28955078,30,708010003
746058.08332520,2574346.48799072,451.50805664,17733,4517.28955078,30,708010003
746058.17841797,2574346.50309692,451.58746338,257,4517.28955078,30,708010003
746058.16297607,2574346.42500244,451.69714355,257,4517.28955078,30,708010003
746058.19208984,2574346.38508545,451.79275513,257,4517.28955078,30,708010003
746058.23829346,2574346.35911499,451.88485718,2827,4517.28955078,30,708010003
746058.24311523,2574346.30241333,451.98223877,257,4517.28955078,30,708010003
746058.08387451,2574346.47669922,451.50454712,18504,4517.28955078,30,708010003
746058.16560059,2574346.48030029,451.58734131,257,4517.28955078,30,708010003
746058.16041260,2574346.41130005,451.69384766,257,4517.28955078,30,708010003
746058.19721680,2574346.37770020,451.78765869,257,4517.28955078,30,708010003
746058.29658203,2574346.27049194,452.06884766,17476,4517.28955078,30,708010003
746058.08417969,2574346.46589600,451.50115967,17733,4517.28955078,30,708010003
746058.14960938,2574346.45539795,451.58834839,257,4517.28955078,30,708010003
746058.16059570,2574346.40049683,451.69015503,257,4517.28955078,30,708010003
746058.19257813,2574346.36320435,451.78463745,257,4517.28955078,30,708010003
746058.22272949,2574346.32551514,451.87893677,257,4517.28955078,30,708010003
746058.25629883,2574346.29020630,451.97204590,257,4517.28955078,30,708010003
746058.28187256,2574346.24940430,452.06533813,15420,4517.28955078,30,708010003
746058.08887939,2574346.45878540,451.49645996,17733,4517.28955078,30,708010003
746058.13630371,2574346.43330322,451.58865356,257,4517.28955078,30,708010003
746058.18800049,2574346.34880005,451.78164673,257,4517.28955078,30,708010003
746058.21790771,2574346.31120239,451.87554932,257,4517.28955078,30,708010003
746058.24982910,2574346.27488647,451.96844482,257,4517.28955078,30,708010003
746058.28352051,2574346.24000488,452.06076050,14649,4517.28955078,30,708010003
746058.08167725,2574346.44160400,451.49563599,17733,4517.28955078,30,708010003
746058.16499023,2574346.44621216,451.57693481,257,4517.28955078,30,708010003
746058.14387207,2574346.36531006,451.68673706,257,4517.28955078,30,708010003
746058.22102051,2574346.30290161,451.87106323,257,4517.28955078,30,708010003
746058.25611572,2574346.26890503,451.96343994,257,4517.28955078,30,708010003
746058.07801514,2574346.42631470,451.49334717,17733,4517.28955078,30,708010003
746058.14759521,2574346.41950928,451.57815552,257,4517.28955078,30,708010003
746058.14912109,2574346.35749756,451.68154907,257,4517.28955078,30,708010003
746058.19471436,2574346.33131348,451.77224731,257,4517.28955078,30,708010003
746058.22010498,2574346.28990112,451.86654663,257,4517.28955078,30,708010003
746058.23878174,2574346.24470459,451.96075439,257,4517.28955078,30,708010003
746058.07392578,2574346.41139160,451.49136353,17733,4517.28955078,30,708010003
746058.14167480,2574346.40370117,451.57635498,257,4517.28955078,30,708010003
746058.15998535,2574346.35490356,451.67514038,257,4517.28955078,30,708010003
746058.19312744,2574346.31941162,451.76873779,257,4517.28955078,30,708010003
746058.63612061,2574346.38661133,452.12615967,771,4517.28955078,30,708010003
746058.07691650,2574346.40299927,451.48724365,19275,4517.28955078,30,708010003
746058.12232666,2574346.37638794,451.57833862,514,4517.28955078,30,708010003
746058.15540771,2574346.34049927,451.67263794,257,4517.28955078,30,708010003
746058.17591553,2574346.29508911,451.76815796,257,4517.28955078,30,708010003
746058.20411377,2574346.25639282,451.86083984,257,4517.28955078,30,708010003
746058.23707275,2574346.22160278,451.95214844,257,4517.28955078,30,708010003
746058.27180176,2574346.18861328,452.04333496,257,4517.28955078,30,708010003
746058.58839111,2574346.34260498,452.12265015,2570,4517.28955078,30,708010003
746058.07740479,2574346.39149414,451.48355103,17733,4517.28955078,30,708010003
746058.11787109,2574346.36149536,451.57604980,514,4517.28955078,30,708010003
746058.19978027,2574346.30158936,451.75915527,257,4517.28955078,30,708010003
746058.21210938,2574346.25129639,451.85534668,257,4517.28955078,30,708010003
746058.23218994,2574346.20719849,451.94836426,257,4517.28955078,30,708010003
746058.27039795,2574346.17610107,452.03863525,514,4517.28955078,30,708010003
746058.50538330,2574346.27580200,452.12094116,2827,4517.28955078,30,708010003
746058.07459717,2574346.37791382,451.48114014,19275,4517.28955078,30,708010003
746058.12592773,2574346.35609375,451.57003784,257,4517.28955078,30,708010003
746058.14960938,2574346.31309448,451.66635132,257,4517.29003906,30,708010003
746058.18568115,2574346.27970825,451.75805664,257,4517.29003906,30,708010003
746058.20081787,2574346.23210083,451.85305786,257,4517.29003906,30,708010003
746058.22388916,2574346.19059692,451.94503784,257,4517.29003906,30,708010003
746058.27351074,2574346.16758667,452.03375244,257,4517.29003906,30,708010003
746058.44550781,2574346.22480713,452.11856079,2570,4517.29003906,30,708010003
746058.06257324,2574346.35719238,451.48214722,15934,4517.29003906,30,708010003
746058.12879639,2574346.34770142,451.56573486,257,4517.29003906,30,708010003
746058.14942627,2574346.30229126,451.66275024,257,4517.29003906,30,708010003
746058.20838623,2574346.22730957,451.84774780,257,4517.29003906,30,708010003
746058.22352295,2574346.18000732,451.94094849,257,4517.29003906,30,708010003
746058.26972656,2574346.15479980,452.02975464,257,4517.29003906,30,708010003
746058.40351563,2574346.18659912,452.11575317,2827,4517.29003906,30,708010003
746058.06397705,2574346.34779297,451.47854614,15934,4517.29003906,30,708010003
746058.11042480,2574346.32240234,451.56784058,257,4517.29003906,30,708010003
746058.14747314,2574346.29051147,451.65963745,514,4517.29003906,30,708010003
746058.21308594,2574346.21980225,451.84286499,771,4517.29003906,30,708010003
746058.21479492,2574346.16389404,451.93783569,257,4517.29003906,30,708010003
746058.26099854,2574346.13880859,452.02624512,514,4517.29003906,30,708010003
746058.35480957,2574346.14399658,452.11325073,2827,4517.29003906,30,708010003
746058.06098633,2574346.33421265,451.47625732,14649,4517.29003906,30,708010003
746058.17701416,2574346.24159180,451.74826050,771,4517.29003906,30,708010003
746058.20478516,2574346.20310913,451.84005737,257,4517.29003906,30,708010003
746058.21949463,2574346.15650879,451.93295288,257,4517.29003906,30,708010003
746058.25892334,2574346.12690674,452.02194214,771,4517.29003906,30,708010003
746058.32929688,2574346.11680542,452.10974121,4883,4517.29003906,30,708010003
746058.11799316,2574346.30628906,451.55856323,1542,4517.29003906,30,708010003
746058.14741211,2574346.26829468,451.65216064,257,4517.29003906,30,708010003
746058.16572266,2574346.22239624,451.74676514,1285,4517.29003906,30,708010003
746058.22730713,2574346.15119873,451.92764282,257,4517.29003906,30,708010003
746058.31037598,2574346.09400879,452.10604858,11822,4517.29003906,30,708010003
746058.06837158,2574346.31819092,451.46704102,15934,4517.29003906,30,708010003
746058.11317139,2574346.29161011,451.55633545,4112,4517.29003906,30,708010003
746058.13941650,2574346.25138794,451.65045166,257,4517.29003906,30,708010003
746058.18452148,2574346.22538696,451.73886108,514,4517.29003906,30,708010003
746058.20429688,2574346.18128906,451.83193970,257,4517.29003906,30,708010003
746058.25819092,2574346.10530029,452.01306152,514,4517.29003906,30,708010003
746058.29139404,2574346.07148682,452.10235596,11565,4517.29003906,30,708010003
746058.06367188,2574346.30351196,451.46545410,15934,4517.29003906,30,708010003
746058.11298828,2574346.28050171,451.55294800,12850,4517.29003906,30,708010003
746058.14381104,2574346.24391113,451.64566040,771,4517.29003906,30,708010003
746058.17310791,2574346.20631348,451.73745728,514,4517.29003906,30,708010003
746058.19910889,2574346.16688477,451.82873535,257,4517.29003906,30,708010003
746058.22321777,2574346.12739502,451.91964722,257,4517.29003906,30,708010003
746058.05897217,2574346.28898560,451.46374512,15163,4517.29003906,30,708010003
746058.10487061,2574346.26390015,451.55206299,18761,4517.29003906,30,708010003
746058.14832764,2574346.23640381,451.64074707,257,4517.29003906,30,708010003
746058.16608887,2574346.19108520,451.73513794,514,4517.29003906,30,708010003
746058.19678955,2574346.15541016,451.82525635,771,4517.29052734,30,708010003
746058.24909668,2574346.13429199,451.91186523,1028,4517.29052734,30,708010003
746058.27357178,2574346.09498535,452.00274658,514,4517.29052734,30,708010003
746058.29688721,2574346.05479370,452.09295654,11565,4517.29052734,30,708010003
746058.06922607,2574346.28669678,451.45706177,15163,4517.29052734,30,708010003
746058.09858398,2574346.24821411,451.55044556,20817,4517.29052734,30,708010003
746058.16187744,2574346.23631226,451.63363647,257,4517.29052734,30,708010003
746058.16090088,2574346.17680298,451.73245239,514,4517.29052734,30,708010003
746058.23017578,2574346.11180054,451.91033936,257,4517.29052734,30,708010003
746058.25629883,2574346.07350098,452.00006104,257,4517.29052734,30,708010003
746058.15357666,2574346.21949707,451.63204956,257,4517.29052734,30,708010003
746058.26441650,2574346.12400757,451.90133667,257,4517.29052734,30,708010003
746058.25568848,2574346.06269775,451.99563599,257,4517.29052734,30,708010003
746058.07020264,2574346.26591431,451.45016479,16448,4517.29052734,30,708010003
746058.10401611,2574346.23100220,451.54183960,19532,4517.29052734,30,708010003
746058.13270264,2574346.19349609,451.63385010,257,4517.29052734,30,708010003
746058.21967773,2574346.13951050,451.80883789,771,4517.29052734,30,708010003
746058.28211670,2574346.12510620,451.89456177,257,4517.29052734,30,708010003
746058.25837402,2574346.05409180,451.99093628,257,4517.29052734,30,708010003
746058.06220703,2574346.24900757,451.44964600,16448,4517.29052734,30,708010003
746058.77607422,2574346.25001465,452.15365601,771,4517.29052734,30,708010003
746058.13392334,2574346.18369995,451.62994385,771,4517.29052734,30,708010003
746058.22169189,2574346.07499634,451.89886475,257,4517.29052734,30,708010003
746058.27277832,2574346.05311523,451.98504639,257,4517.29052734,30,708010003
746058.28571777,2574346.00669800,452.07525635,13107,4517.29052734,30,708010003
746058.06342773,2574346.23921143,451.44604492,17219,4517.29052734,30,708010003
746058.70362549,2574346.19551025,452.15023804,2570,4517.29052734,30,708010003
746058.25758057,2574346.14460693,451.79385376,771,4517.29052734,30,708010003
746058.20600586,2574346.05448853,451.89685059,257,4517.29052734,30,708010003
746058.26032715,2574346.03480469,451.98196411,257,4517.29052734,30,708010003
746058.07032471,2574346.23451172,451.44033813,16448,4517.29052734,30,708010003
746058.63758545,2574346.14601074,452.14715576,2313,4517.29052734,30,708010003
746058.08997803,2574346.18919312,451.53594971,18761,4517.29052734,30,708010003
746058.14051514,2574346.16801392,451.62094116,1028,4517.29052734,30,708010003
746058.19178467,2574346.14640747,451.70623779,771,4517.29052734,30,708010003
746058.25202637,2574346.13081299,451.79095459,771,4517.29052734,30,708010003
746058.19831543,2574346.03990112,451.89404297,257,4517.29052734,30,708010003
746058.36237793,2574346.08891235,451.96673584,257,4517.29052734,30,708010003
746058.30067139,2574345.99659668,452.06555176,4883,4517.29052734,30,708010003
746058.07117920,2574346.22520386,451.43695068,16448,4517.29052734,30,708010003
746058.57471924,2574346.09880005,452.14425659,2570,4517.29052734,30,708010003
746058.14759521,2574346.16319214,451.61553955,1028,4517.29052734,30,708010003
746058.20197754,2574346.08698975,451.79626465,257,4517.29052734,30,708010003
746058.22260742,2574346.04530273,451.88635254,257,4517.29052734,30,708010003
746058.30561523,2574346.04359375,451.96865845,257,4517.29052734,30,708010003
746058.06928711,2574346.21260010,451.43414307,16448,4517.29101562,30,708010003
746058.52912598,2574346.06150757,452.14074707,2313,4517.29101562,30,708010003
746058.09010010,2574346.16899048,451.52914429,17733,4517.29101562,30,708010003
746058.15028076,2574346.15409790,451.61096191,771,4517.29101562,30,708010003
746058.22291260,2574346.14680420,451.69134521,771,4517.29101562,30,708010003
746058.19947510,2574346.07508789,451.79266357,257,4517.29101562,30,708010003
746058.27271729,2574346.01258789,451.96765137,257,4517.29101562,30,708010003
746058.29719238,2574345.97428833,452.05664063,514,4517.29101562,30,708010003
746058.06562500,2574346.19938599,451.43225098,17990,4517.29101562,30,708010003
746058.50098877,2574346.03401123,452.13653564,2570,4517.29101562,30,708010003
746058.09437256,2574346.16120850,451.52413940,19532,4517.29101562,30,708010003
746058.16718750,2574346.15559326,451.60266113,1028,4517.29101562,30,708010003
746058.24647217,2574346.15251099,451.68194580,514,4517.29101562,30,708010003
746058.21070557,2574346.01759277,451.87976074,257,4517.29101562,30,708010003
746058.31428223,2574346.02790771,451.95855713,257,4517.29101562,30,708010003
746058.06971436,2574346.19200073,451.42755127,17990,4517.29101562,30,708010003
746058.45307617,2574345.99681030,452.13363647,2570,4517.29101562,30,708010003
746058.09187012,2574346.14961182,451.52163696,18247,4517.29101562,30,708010003
746058.18238525,2574346.15580688,451.59475708,771,4517.29101562,30,708010003
746058.19038086,2574346.10429321,451.69125366,257,4517.29101562,30,708010003
746058.20112305,2574346.05570923,451.78436279,257,4517.29101562,30,708010003
746058.21979980,2574346.01328979,451.87423706,257,4517.29101562,30,708010003
746058.30030518,2574345.95609985,452.04736328,257,4517.29101562,30,708010003
746058.07032471,2574346.18250977,451.42416382,17990,4517.29101562,30,708010003
746058.41547852,2574345.96528564,452.13034058,2313,4517.29101562,30,708010003
746058.08637695,2574346.13529907,451.51995850,20046,4517.29101562,30,708010003
746058.16389160,2574346.13301025,451.59634399,257,4517.29101562,30,708010003
746058.17811279,2574346.08579956,451.69033813,257,4517.29101562,30,708010003
746058.19691162,2574346.04280029,451.78125000,257,4517.29101562,30,708010003
746058.27137451,2574345.98188721,451.95495605,257,4517.29101562,30,708010003
746058.30079346,2574345.94691406,452.04306030,257,4517.29101562,30,708010003
746058.07569580,2574346.17619263,451.41885376,17219,4517.29101562,30,708010003
746058.36732178,2574345.92851196,452.12783813,2313,4517.29101562,30,708010003
746058.15192871,2574346.11430298,451.59594727,771,4517.29101562,30,708010003
746058.17219238,2574346.07209717,451.68804932,257,4517.29101562,30,708010003
746058.18909912,2574346.02821289,451.77896118,257,4517.29101562,30,708010003
746058.34211426,2574346.06980835,451.84695435,257,4517.29101562,30,708010003
746058.24451904,2574345.95640503,451.95404053,257,4517.29101562,30,708010003
746058.34022217,2574345.90299927,452.12423706,3084,4517.29101562,30,708010003
746058.09260254,2574346.11939941,451.51104736,18761,4517.29101562,30,708010003
746058.17988281,2574346.01179443,451.77664185,257,4517.29101562,30,708010003
746058.39527588,2574346.09208618,451.83413696,771,4517.29101562,30,708010003
746058.26228027,2574345.95658813,451.94735718,257,4517.29101562,30,708010003
746058.28638916,2574345.91880737,452.03524780,771,4517.29101562,30,708010003
746058.06501465,2574346.14759766,451.41625977,17219,4517.29101562,30,708010003
746058.32832031,2574345.88709961,452.12036133,5397,4517.29101562,30,708010003
746058.25861816,2574346.10880981,451.65975952,514,4517.29101562,30,708010003
746058.19691162,2574346.01310669,451.76943970,257,4517.29101562,30,708010003
746058.38941650,2574346.07780395,451.83074951,771,4517.29101562,30,708010003
746058.29688721,2574345.96769653,451.93905640,257,4517.29101562,30,708010003
746058.29047852,2574345.91130005,452.03054810,1028,4517.29101562,30,708010003
746058.30952148,2574345.86698853,452.11663818,8995,4517.29150391,30,708010003
746058.09217529,2574346.09919678,451.50454712,20046,4517.29150391,30,708010003
746058.32990723,2574346.14509521,451.63854980,1028,4517.29150391,30,708010003
746058.19410400,2574346.00138794,451.76605225,257,4517.29150391,30,708010003
746058.37812500,2574346.06089722,451.82833862,1028,4517.29150391,30,708010003
746058.25288086,2574345.93180786,451.94015503,257,4517.29150391,30,708010003
746058.07392578,2574346.13420044,451.40655518,17990,4517.29150391,30,708010003
746058.32197266,2574345.86448608,452.11166382,11308,4517.29150391,30,708010003
746058.09101563,2574346.08891235,451.50164795,20817,4517.29150391,30,708010003
746058.32392578,2574346.13099609,451.63613892,1028,4517.29150391,30,708010003
746058.18769531,2574345.98811279,451.76354980,257,4517.29150391,30,708010003
746058.40247803,2574346.06520020,451.81994629,771,4517.29150391,30,708010003
746058.23249512,2574345.91059814,451.93865967,257,4517.29150391,30,708010003
746058.31031494,2574345.90330444,452.02014160,257,4517.29150391,30,708010003
746058.07117920,2574346.12269531,451.40444946,17990,4517.29150391,30,708010003
746058.08680420,2574346.07591187,451.49954224,20046,4517.29150391,30,708010003
746058.31647949,2574346.11549316,451.63394165,1028,4517.29150391,30,708010003
746058.18488770,2574345.97630249,451.76025391,257,4517.29150391,30,708010003
746058.41999512,2574346.06568848,451.81283569,771,4517.29150391,30,708010003
746058.31251221,2574345.89469849,452.01556396,257,4517.29150391,30,708010003
746058.06409912,2574346.10740601,451.40383911,17219,4517.29150391,30,708010003
746058.31568604,2574345.84190308,452.10284424,12593,4517.29150391,30,708010003
746058.08100586,2574346.06199585,451.49804688,20046,4517.29150391,30,708010003
746058.11317139,2574346.02860962,451.58554077,1028,4517.29150391,30,708010003
746058.31879883,2574346.10639893,451.62936401,1028,4517.29150391,30,708010003
746058.19868164,2574345.97511230,451.75344849,257,4517.29150391,30,708010003
746058.41047363,2574346.04930054,451.81005859,771,4517.29150391,30,708010003
746058.43317871,2574346.00660645,451.90435791,257,4517.29150391,30,708010003
746058.29188232,2574345.87348877,452.01306152,257,4517.29150391,30,708010003
746058.05842285,2574346.09318481,451.40274048,16448,4517.29150391,30,708010003
746058.31428223,2574345.83140503,452.09844971,12850,4517.29150391,30,708010003
746058.09101563,2574346.05879150,451.49136353,20046,4517.29150391,30,708010003
746058.90729980,2574346.08460937,452.17315674,771,4517.29150391,30,708010003
746058.10548096,2574346.01359497,451.58425903,3084,4517.29150391,30,708010003
746058.31617432,2574346.09419189,451.62594604,1028,4517.29150391,30,708010003
746058.20252686,2574345.96751343,451.74874878,257,4517.29150391,30,708010003
746058.40601807,2574346.03608643,451.80645752,1028,4517.29150391,30,708010003
746058.53040771,2574346.05171143,451.88705444,257,4517.29150391,30,708010003
746058.29041748,2574345.86299072,452.00875854,257,4517.29150391,30,708010003
746058.06361084,2574346.08689819,451.39755249,17990,4517.29150391,30,708010003
746058.30402832,2574345.81639038,452.09454346,12850,4517.29150391,30,708010003
746058.86030273,2574346.04908691,452.16854858,2056,4517.29150391,30,708010003
746058.32178955,2574346.08720337,451.62054443,1028,4517.29150391,30,708010003
746058.37928467,2574346.06559692,451.70794678,771,4517.29150391,30,708010003
746058.42200928,2574346.03510986,451.79934692,771,4517.29150391,30,708010003
746058.45679932,2574345.99919067,451.89215088,257,4517.29150391,30,708010003
746058.25922852,2574345.83640991,452.00735474,257,4517.29150391,30,708010003
746058.07911377,2574346.03089844,451.48855591,21331,4517.29150391,30,708010003
746058.77357178,2574345.99449097,452.16534424,2827,4517.29150391,30,708010003
746058.12897949,2574346.00941406,451.57025146,17476,4517.29150391,30,708010003
746058.31580811,2574346.07289062,451.61804199,1028,4517.29150391,30,708010003
746058.42597656,2574346.02680908,451.79425049,771,4517.29150391,30,708010003
746058.41059570,2574345.96269165,451.89385986,257,4517.29150391,30,708010003
746058.29780273,2574345.84831177,451.99954224,257,4517.29150391,30,708010003
746058.07227783,2574346.07301270,451.38775635,16448,4517.29199219,30,708010003
746058.31477051,2574345.80351196,452.08514404,15934,4517.29199219,30,708010003
746058.69752197,2574345.94529663,452.16195679,3084,4517.29199219,30,708010003
746058.12122803,2574345.99449097,451.56893921,22102,4517.29199219,30,708010003
746058.32600098,2574346.06941162,451.61166382,1028,4517.29199219,30,708010003
746058.33979492,2574346.02119385,451.70803833,771,4517.29199219,30,708010003
746058.42481689,2574346.01570068,451.79003906,514,4517.29199219,30,708010003
746058.30341797,2574345.89298950,451.90414429,257,4517.29199219,30,708010003
746058.28040771,2574345.82939087,451.99685669,257,4517.29199219,30,708010003
746058.06617432,2574346.05940186,451.38696289,17219,4517.29199219,30,708010003
746058.30610352,2574345.78959595,452.08114624,13878,4517.29199219,30,708010003
746058.08277588,2574346.01429687,451.48065186,21331,4517.29199219,30,708010003
746058.64619141,2574345.90901123,452.15814209,3084,4517.29199219,30,708010003
746058.10499268,2574345.97468506,451.57034302,20046,4517.29199219,30,708010003
746058.32978516,2574346.06129395,451.60665894,1028,4517.29199219,30,708010003
746058.38068848,2574346.03550659,451.69515991,771,4517.29199219,30,708010003
746058.38752441,2574345.98411499,451.79244995,771,4517.29199219,30,708010003
746058.28059082,2574345.81980835,451.99255371,257,4517.29199219,30,708010003
746058.06031494,2574346.04539429,451.38595581,17219,4517.29199219,30,708010003
746058.29908447,2574345.77650391,452.07723999,13621,4517.29199219,30,708010003
746058.61079102,2574345.88108765,452.15405273,3084,4517.29199219,30,708010003
746058.10529785,2574345.96519409,451.56674194,21074,4517.29199219,30,708010003
746058.31538086,2574346.04200684,451.60635376,1028,4517.29199219,30,708010003
746058.33039551,2574345.99510132,451.70184326,771,4517.29199219,30,708010003
746058.26209717,2574345.85081421,451.90133667,257,4517.29199219,30,708010003
746058.28071289,2574345.81040894,451.98825073,257,4517.29199219,30,708010003
746058.06062012,2574346.03581177,451.38253784,16448,4517.29199219,30,708010003
746058.08967285,2574345.99931274,451.47143555,21331,4517.29199219,30,708010003
746058.56788330,2574345.85029541,452.15063477,3084,4517.29199219,30,708010003
746058.32081299,2574346.03489624,451.60104370,771,4517.29199219,30,708010003
746058.40192871,2574346.02711426,451.68215942,771,4517.29199219,30,708010003
746058.40711670,2574345.97480713,451.78036499,257,4517.29199219,30,708010003
746058.31092529,2574345.86790405,451.89025879,257,4517.29199219,30,708010003
746058.29719238,2574345.75730835,452.06875610,3084,4517.29199219,30,708010003
746058.07691650,2574345.98170410,451.47265625,20046,4517.29199219,30,708010003
746058.53406982,2574345.82359253,452.14675903,3084,4517.29199219,30,708010003
746058.11207275,2574345.95030151,451.55755615,22102,4517.29199219,30,708010003
746058.30762939,2574346.01719604,451.60064697,771,4517.29199219,30,708010003
746058.40717773,2574346.02030884,451.67694092,771,4517.29199219,30,708010003
746058.42628174,2574345.97538696,451.77246094,257,4517.29199219,30,708010003
746058.26899414,2574345.83589111,451.89224243,257,4517.29199219,30,708010003
746058.27167969,2574345.78730713,451.98074341,257,4517.29199219,30,708010003
746058.06708984,2574346.02119385,451.37365723,16448,4517.29199219,30,708010003
746058.49641113,2574345.79591309,452.14346313,2827,4517.29199219,30,708010003
746058.30787354,2574346.00709473,451.59655762,771,4517.29199219,30,708010003
746058.41437988,2574346.01399170,451.67114258,771,4517.29199219,30,708010003
